# .PCD v0.7 - Point Cloud Data file format
VERSION 0.7
FIELDS x y z
SIZE 4 4 4
TYPE F F F
COUNT 1 1 1
WIDTH 1514
HEIGHT 1
VIEWPOINT 0 0 0 1 0 0 0
POINTS 1514
DATA ascii
-11.898792 -1.8752693 47.352497
-11.478163 -1.9241167 47.37204
-10.462777 -1.8698534 47.451035
-10.212932 -1.9322077 47.411201
-8.9393454 -1.8405179 47.451889
-8.4818687 -1.9037521 47.470932
-8.2749519 -1.9032419 47.340397
-7.408844 -1.8444179 47.34304
-6.9836087 -1.9053993 47.456158
-5.8714299 -1.7855823 47.430332
-5.5666952 -1.8076001 47.450569
-5.0598583 -1.6629666 47.502357
-4.6841254 -1.6230342 47.409588
-1.3975735 -1.7129167 47.420174
-25.808386 -1.4320049 47.395386
-21.31712 -1.4198825 47.249096
-20.539742 -1.268564 47.266739
-20.242237 -1.2874643 47.313507
-19.873547 -1.2211946 47.45134
-18.922213 -1.3618321 47.375023
-18.776951 -1.3659936 47.456581
-4.8531604 -1.5875365 47.233086
-4.4230967 -1.5806609 47.397648
-4.150548 -1.5768776 47.318413
-3.8256826 -1.544498 47.305283
-3.4147403 -1.5404488 47.229912
-2.9980931 -1.5017864 47.359322
-2.64956 -1.4926066 47.38208
-2.1678739 -1.4672873 47.403534
-1.9142421 -1.4843391 47.470596
-1.482721 -1.5497214 47.505371
-25.819174 -0.99243605 47.379936
-21.283833 -0.98171645 47.287575
-20.720413 -0.93726683 47.483868
-20.14381 -0.94136232 47.406075
-19.758778 -0.9976483 47.280674
-19.472254 -0.99136537 47.303154
-18.946493 -0.96846879 47.347042
-2.9123077 -1.0434616 47.572712
-26.03385 -0.57121199 47.411644
-25.88183 -0.55557579 47.387642
-18.947876 -0.75428724 47.343414
-17.81319 -2.0170493 47.848686
-17.389725 -2.081897 47.813976
-17.170492 -2.0898871 47.744862
-16.501801 -2.0955727 47.653984
-16.180363 -2.0880792 47.821747
-15.631773 -2.0716629 47.723782
-15.40329 -2.0631928 47.841183
-14.869213 -2.0647123 47.981735
-25.74662 -1.7038897 47.83252
-25.096487 -1.8793063 47.923443
-23.372297 -1.9036804 47.604416
-23.039839 -1.9022919 47.878094
-22.511574 -1.8938285 47.919762
-22.294594 -1.8997252 47.975548
-21.590603 -1.8999858 47.646687
-20.558752 -1.8945639 47.860359
-20.102022 -1.8964814 47.802746
-19.709652 -1.8627537 47.848412
-19.22015 -1.9183941 47.748219
-18.915882 -1.9146081 47.904041
-18.596495 -1.9226646 47.613262
-18.290298 -1.9731424 47.838055
-12.137626 -1.7774786 47.806118
-11.807028 -1.8568144 47.736671
-11.456961 -1.9073266 47.756405
-10.469231 -1.8739491 47.791267
-10.343032 -1.8950101 47.915665
-8.902051 -1.8173981 47.847179
-8.5546637 -1.9014244 47.750462
-8.2360611 -1.8815835 47.674171
-7.9420438 -1.8578053 47.974903
-7.3123512 -1.8524876 47.704838
-6.9207854 -1.9036812 47.753727
-5.801477 -1.783607 47.854603
-5.5488338 -1.82768 47.847301
-4.6064968 -1.6294469 47.819431
-4.1795292 -1.6031525 47.733822
-1.7777548 -1.6070999 47.678833
-1.4868379 -1.6010087 47.606476
-25.773811 -1.3926333 47.768692
-18.910074 -1.5001303 47.602497
-4.2909126 -1.5976219 47.757843
-3.889358 -1.5677044 47.654335
-3.4690552 -1.5517124 47.796173
-3.0622699 -1.5207449 47.87011
-2.6374466 -1.4797932 47.821465
-2.2546656 -1.4687704 47.77816
-1.8544708 -1.5035655 47.838501
-1.3951397 -1.5617802 47.72472
-25.752817 -0.95096487 47.834316
-25.809055 -0.56637877 47.753719
-18.114208 -2.0094495 48.317184
-17.810335 -2.0184834 48.233829
-17.375416 -2.0595927 48.181351
-16.979071 -2.0824192 48.039875
-16.20262 -2.0802317 48.040592
-15.859288 -2.0716174 48.198261
-15.494784 -2.063951 48.196667
-14.928879 -2.0581045 48.192436
-14.593952 -2.0713723 48.153694
-14.126321 -2.0703354 48.020275
-25.682194 -1.67743 48.364769
-24.901844 -1.8831201 48.190739
-23.103107 -1.8933702 48.094212
-22.382339 -1.901268 48.369404
-21.508087 -1.8898642 48.163162
-20.535498 -1.9001387 48.235954
-20.150414 -1.8928418 48.164734
-19.908356 -1.8899992 48.253128
-19.279371 -1.917135 48.135952
-18.685686 -1.9130216 48.040489
-18.224371 -1.9734659 48.241222
-17.603355 -1.9703223 48.106174
-12.073105 -1.7903385 48.238976
-11.857365 -1.8454986 48.194843
-11.442348 -1.9048786 48.17437
-10.450889 -1.8467885 48.131832
-10.30688 -1.9075407 48.296574
-8.924324 -1.8307066 48.180679
-8.7413826 -1.8744315 48.244843
-8.2506008 -1.8857867 48.234203
-7.9086037 -1.8521261 48.172241
-7.3284302 -1.8275847 48.149349
-7.0135603 -1.8939304 48.235966
-6.7144136 -1.8974653 48.321884
-5.8035789 -1.784707 48.224415
-5.4555969 -1.7929714 48.169861
-4.6575012 -1.6341149 48.110062
-4.2685223 -1.7117404 48.083771
-1.7453337 -1.6704463 48.0513
-25.71493 -1.4355363 48.161858
-4.1332641 -1.5733198 48.204357
-3.7988026 -1.5623068 48.108433
-3.5216587 -1.5582737 48.199345
-3.0190816 -1.5253302 48.195786
-2.5949249 -1.489736 48.164955
-2.2554789 -1.4818003 48.20755
-1.800536 -1.5004905 48.196041
-1.418368 -1.5528556 48.234539
-25.70418 -1.0023506 48.259319
-26.032362 -0.61936998 48.37608
-25.764492 -0.56086934 48.219044
-18.003332 -2.0033462 48.79554
-17.791294 -2.0177469 48.651985
-17.333506 -2.0715089 48.579655
-17.085222 -2.0871999 48.464615
-16.573694 -2.0700965 48.636189
-16.157671 -2.0631351 48.627987
-15.826479 -2.076005 48.41761
-15.333089 -2.0684123 48.639454
-15.164751 -2.0936453 48.792866
-14.61038 -2.064146 48.552902
-14.200767 -2.059782 48.54319
-13.790407 -2.0640032 48.674271
-27.93923 -1.7160642 48.749001
-27.371252 -1.6818082 48.713432
-26.766216 -1.7508514 48.66486
-26.122513 -1.8711081 48.782177
-25.690298 -1.7251555 48.51392
-24.887764 -1.8872666 48.659817
-23.0541 -1.8851123 48.651749
-22.72702 -1.8932832 48.415539
-21.38765 -1.8885185 48.578384
-20.614851 -1.8856864 48.690399
-20.267708 -1.890988 48.585423
-19.83774 -1.8915133 48.493534
-19.337708 -1.9158788 48.522583
-19.196739 -1.9776026 48.565292
-18.64188 -1.9142025 48.507393
-18.204521 -1.9777552 48.618256
-17.996752 -1.9980929 48.44474
-12.166252 -1.83859 48.627022
-11.842106 -1.8142349 48.573441
-11.323199 -1.908584 48.556721
-11.106586 -1.9364163 48.668091
-10.546469 -1.823696 48.724983
-10.306244 -1.9022455 48.615166
-9.9757566 -1.9732683 48.5504
-8.8438768 -1.79986 48.623371
-8.6777582 -1.8716574 48.5513
-7.2649202 -1.808588 48.621323
-6.9346819 -1.8881896 48.438835
-6.7044263 -1.9088799 48.635113
-5.7515931 -1.7770557 48.700581
-5.481102 -1.8340321 48.515499
-4.9893427 -1.7048171 48.664318
-4.6378512 -1.6573213 48.647449
-4.2134256 -1.6127872 48.794895
-28.632488 -1.2453511 48.765347
-27.83119 -1.2327956 48.735405
-27.196026 -1.3815413 48.637817
-26.141796 -1.5457793 48.498768
-25.715145 -1.4467953 48.453442
-12.086817 -1.5603085 48.455044
-4.4541426 -1.5798399 48.42128
-4.1542473 -1.590006 48.552757
-3.7977974 -1.5686775 48.598568
-3.4184577 -1.5520924 48.575844
-2.9373417 -1.509102 48.622723
-2.5505455 -1.4831318 48.658569
-2.1724782 -1.4641588 48.615036
-1.82122 -1.4820291 48.597466
-1.4012439 -1.5676411 48.654518
-28.787998 -0.92049462 48.739571
-28.02877 -1.1540447 48.78653
-27.863955 -0.94995099 48.77063
-27.408958 -0.85803807 48.76429
-27.04208 -0.86176318 48.677345
-26.763704 -1.0398853 48.677418
-25.753717 -0.90585524 48.564911
-28.545416 -0.62737024 48.748692
-28.229965 -0.72494453 48.703758
-27.855526 -0.55778539 48.662277
-27.364868 -0.62385237 48.594254
-26.961021 -0.62190545 48.584187
-26.200743 -0.64047801 48.469803
-25.73667 -0.56028056 48.487663
-17.721476 -2.017868 49.073479
-17.314901 -2.0482805 48.895477
-17.060381 -2.0893786 48.973148
-16.587994 -2.0663552 49.011559
-16.267633 -2.0639222 49.021549
-15.80856 -2.0535474 49.030777
-15.391677 -2.0597279 48.804264
-14.955612 -2.0672441 49.024136
-14.463061 -2.0541191 48.919098
-14.382284 -2.0517869 49.141308
-29.57476 -1.8160987 48.932083
-28.390408 -1.8655086 48.989738
-27.129494 -1.8690856 49.044735
-25.393661 -1.8850316 49.010818
-24.858143 -1.8908167 49.171509
-24.715189 -1.8960078 48.839844
-22.929123 -1.8874092 49.026348
-22.446079 -1.9011302 48.807922
-21.36047 -1.8920333 48.907635
-21.001387 -1.8667805 48.995296
-20.544661 -1.8862127 49.048046
-20.043072 -1.8820766 48.826092
-19.798315 -1.8699425 48.932331
-19.438847 -1.8791305 49.017944
-18.889805 -1.9004314 48.871552
-18.159618 -1.9710069 49.060349
-17.840443 -1.9683313 49.141762
-12.002645 -1.8153408 49.081638
-11.840875 -1.8141158 48.980068
-11.431807 -1.871769 49.010445
-11.197179 -1.9117901 48.802261
-10.273706 -1.8821174 49.023697
-8.6692076 -1.8579527 49.039829
-8.2321796 -1.8944848 49.040352
-7.9476485 -1.8866129 49.082409
-7.2631812 -1.8351628 48.952713
-7.0326252 -1.8929685 48.966457
-6.6916313 -1.8866768 48.847595
-5.7067337 -1.768235 49.019825
-5.5064449 -1.8192178 48.909966
-4.5601006 -1.6274724 48.920708
-4.2080703 -1.6081403 48.953617
-2.9367008 -1.619509 48.983299
-31.804428 -1.3882701 49.115318
-30.861855 -1.2912765 49.066486
-29.806057 -1.2661324 48.957542
-29.512352 -1.2216725 48.958775
-28.989542 -1.3175911 48.882362
-4.0715294 -1.5858331 48.988434
-3.7347305 -1.5775347 48.875751
-3.4022555 -1.5613413 49.014343
-2.9535911 -1.5103034 49.06929
-2.5951238 -1.484059 49.073833
-2.1338048 -1.473943 49.023285
-1.8480378 -1.4962248 49.006374
-1.4379305 -1.5462623 48.979786
-31.796331 -0.9166286 49.157963
-31.337448 -0.87024963 49.034748
-30.953222 -0.91980267 49.034237
-29.76676 -0.87352186 48.940376
-29.465378 -0.91227543 48.912025
-29.074524 -0.96425599 48.90984
-31.8036 -0.5582732 49.135654
-30.493753 -0.65366781 48.865528
-29.890574 -0.59615391 48.911743
-29.495153 -0.56120104 48.857986
-28.991226 -0.59551054 48.802063
-28.644264 -0.64119935 48.90168
-17.76214 -2.0361021 49.377228
-17.425842 -2.0349286 49.396076
-17.112183 -2.0642095 49.51915
-16.513771 -2.0662482 49.41785
-16.028467 -2.0569742 49.511459
-15.879045 -2.0613265 49.247032
-15.318222 -2.0546393 49.383823
-14.622844 -2.0640726 49.310291
-14.255191 -2.0614519 49.557858
-30.696648 -1.8089414 49.303291
-28.617123 -1.8629738 49.495979
-27.269356 -1.8695745 49.580029
-26.2108 -1.8749712 49.281708
-23.049572 -1.8951297 49.429886
-22.539032 -1.8832365 49.381905
-21.724924 -1.8961773 49.381218
-21.224957 -1.8847311 49.306725
-20.883179 -1.8786798 49.458992
-20.728905 -1.8847104 49.499588
-20.151505 -1.872027 49.335609
-19.62904 -1.8805397 49.5564
-19.354649 -1.9079893 49.373322
-19.018087 -1.8973703 49.27282
-18.437244 -1.9444158 49.348083
-18.19121 -1.9740483 49.565464
-17.765482 -1.9962227 49.485039
-14.985838 -1.9824523 49.514359
-12.158244 -1.7528131 49.373253
-11.887032 -1.8140037 49.431305
-11.422228 -1.8904428 49.329586
-11.089665 -1.9252741 49.395596
-10.196117 -1.8843752 49.431564
-9.9539289 -1.9454223 49.375996
-8.6731396 -1.8422778 49.407925
-8.178237 -1.9034634 49.424458
-7.2031736 -1.7877778 49.316597
-7.1432252 -1.8348256 49.385105
-6.550858 -1.8953053 49.450619
-6.3365879 -1.8543274 49.537781
-5.6452265 -1.7516763 49.476151
-5.4243989 -1.8076825 49.387234
-4.6113586 -1.6623354 49.327072
-4.1809173 -1.6154926 49.507103
-34.860676 -1.2182268 49.570385
-34.628094 -1.2998426 49.563293
-31.758526 -1.3619905 49.201515
-3.7917776 -1.5646375 49.316036
-3.4039571 -1.5532331 49.461151
-2.9330866 -1.5041726 49.496941
-2.5221195 -1.4598362 49.485512
-2.2065341 -1.4672178 49.374176
-1.7398763 -1.4859265 49.40316
-1.3938516 -1.5581151 49.346939
-35.07222 -0.99059045 49.582458
-33.790051 -0.9553932 49.380821
-33.465317 -0.9439187 49.396828
-32.86219 -1.0306511 49.329155
-31.91098 -1.0323744 49.221046
-34.517776 -0.59628671 49.467022
-32.627579 -0.58493495 49.239414
-16.029707 -2.0686493 49.668907
-24.709301 -1.8850121 49.630524
-7.8739944 -1.8695736 49.684593
-35.478245 -1.0148078 49.622673
-36.405148 -0.7945047 49.625412
-36.028412 -0.57822329 49.652077
-35.899021 -0.63407469 49.620911
-24.430992 -0.53720969 18.332853
-23.346819 0.16498873 18.301714
-22.863346 0.25868678 18.381458
-22.646847 0.35267803 18.374157
-23.433638 0.54586375 18.203489
-22.979904 0.45377725 18.199898
-24.476393 -0.48705426 18.494127
-24.251976 -0.34571171 18.69766
-23.516575 -0.31766102 18.450592
-24.536427 0.12720123 18.502047
-23.630823 0.29880923 18.598663
-23.480061 0.25882834 18.684555
-23.001783 0.26682237 18.58432
-24.220829 0.57080984 18.762287
-23.846533 0.68858576 18.561218
-23.352684 0.5163554 18.565742
-24.119732 1.0707754 18.623859
-23.923601 1.0384238 18.578938
-24.348909 1.2509865 18.793335
-25.050714 -0.092752174 18.908463
-24.453339 -0.21045953 18.970928
-24.326521 -0.28807884 18.943607
-23.683153 -0.10089114 19.114758
-23.512636 -0.22572671 18.928856
-24.885897 0.20540732 18.938314
-24.654995 0.019825067 19.055387
-23.667856 0.17381571 19.159922
-23.460043 0.1901658 18.953415
-23.062277 0.34946486 19.189732
-24.815182 0.60097313 18.899048
-24.240007 0.51709914 19.103901
-23.685198 0.72567314 19.053741
-22.876831 0.67827284 19.094748
-22.599428 0.75716996 19.065863
-22.268314 0.73531139 19.152248
-24.134953 0.99508822 18.976561
-23.945623 1.0686444 19.168077
-22.942696 0.92321253 19.109631
-22.592476 0.82143021 18.966156
-24.366003 1.2953426 18.95701
-24.490805 -0.33431888 19.491859
-23.270802 -0.30382469 19.557848
-22.569578 -0.079695128 19.426346
-24.871922 0.23633713 19.295565
-24.629869 0.18766788 19.314375
-23.737839 0.28584361 19.301941
-23.558065 0.19825259 19.304226
-22.55378 0.087525584 19.411604
-22.273827 0.012034304 19.428858
-24.226002 0.65445495 19.436684
-23.395288 0.60253686 19.326426
-22.934278 0.43910599 19.446312
-22.584782 0.67362094 19.429636
-22.261513 0.62405688 19.395578
-24.493706 0.96827304 19.387363
-24.322578 1.0228279 19.483376
-23.873346 1.0054876 19.280788
-23.061176 0.84589708 19.414948
-23.352432 1.4781222 19.518353
-24.900749 -0.51507097 19.838373
-24.758461 -0.46744424 19.946947
-24.179092 -0.45174229 19.754988
-24.598202 -0.37679562 19.727411
-23.725868 -0.1591177 19.80826
-23.405785 -0.1095546 19.850471
-23.037298 -0.095959768 19.846359
-22.42836 -0.10248846 19.824787
-22.335987 -0.15483519 19.803934
-24.649727 0.31107527 19.832779
-24.174932 0.058706403 19.75922
-23.681318 0.17117646 19.720003
-22.601166 0.03354679 19.773151
-25.11886 0.6167984 19.715759
-23.490301 0.65140063 19.979065
-22.906961 0.62416315 19.775957
-22.618061 0.75467473 19.860456
-24.000301 1.0747966 19.812225
-23.962685 1.0244191 19.61454
-23.387016 1.0007976 19.847694
-21.950899 1.6246954 19.982273
-24.214437 -0.44317725 20.250086
-24.8545 -0.28067073 20.221756
-24.546818 -0.33587146 20.367929
-24.140625 -0.37382376 20.055038
-23.634466 -0.011746645 20.223316
-23.374689 -0.22509293 20.195627
-23.125761 -0.29867423 20.227993
-22.47648 -0.07496167 20.247583
-24.948404 0.28936297 20.230206
-24.114746 0.3766762 20.086456
-23.955765 0.0021168143 20.175585
-23.324169 0.16620114 20.147703
-23.051849 0.15016384 20.136799
-22.588402 0.097269863 20.25382
-25.162926 0.51362365 20.318279
-23.438545 0.6264872 20.225866
-23.836634 0.94057685 20.246111
-23.349157 0.98467445 20.031282
-23.040119 1.05091 20.272907
-22.444256 1.0221335 20.306395
-22.206676 0.99645662 20.18767
-25.292486 1.3519722 20.342602
-22.819006 1.2856008 20.389118
-24.176523 -0.44292182 20.586939
-23.877445 -0.48076242 20.495686
-22.451248 -0.54373252 20.485905
-24.063553 -0.32941416 20.602818
-23.839622 -0.16026425 20.787743
-23.500565 -0.17603347 20.51952
-23.137012 -0.25815681 20.419146
-25.068619 0.37787133 20.651449
-24.447144 0.218474 20.572102
-24.07357 0.15498611 20.714779
-23.753937 0.057957418 20.469196
-22.544743 0.24880564 20.677231
-25.811342 0.68581736 20.772148
-25.109846 0.43878877 20.70245
-23.534142 0.73297948 20.649231
-22.964201 0.58867139 20.791351
-21.896376 0.70697868 20.700306
-21.353912 0.65397525 20.450615
-21.026737 0.69364345 20.681292
-24.777969 1.1487212 20.506466
-22.526993 1.0303197 20.624668
-22.241877 0.94368845 20.678442
-21.974098 0.81433403 20.504276
-22.202354 1.2988313 20.706976
-21.620974 1.2455189 20.795475
-20.873407 1.6949903 20.700634
-24.131952 -0.46236208 21.035053
-23.920578 -0.47588056 20.881245
-1.390619 -0.477871 20.934153
-24.578568 -0.22866282 21.063932
-24.197002 -0.24112019 20.932838
-23.785671 -0.13392317 20.942081
-23.335533 -0.29778138 20.862392
-24.216553 0.20728537 20.961874
-23.685221 0.042449713 20.983667
-22.86343 0.36533442 21.14032
-22.423683 0.36793557 20.875826
-25.102566 0.40932298 20.941059
-23.311869 0.66738373 20.900835
-22.913258 0.58547568 20.837973
-22.618538 0.5374198 20.913013
-22.026356 0.71606076 21.126444
-21.782356 0.71038878 20.977325
-21.281406 0.73852187 21.060839
-21.057198 0.64739817 21.063196
-24.813551 1.1085541 21.047386
-24.48785 1.0603039 20.959316
-24.240791 0.98630428 20.816614
-23.592358 1.183345 21.014715
-22.181623 0.98554522 20.983461
-21.726894 0.91560394 21.000715
-27.499426 1.4351157 21.0574
-21.745682 1.2668121 20.808979
-21.26627 1.3709749 21.064663
-21.111452 1.2763394 21.049501
-24.92564 -0.15559119 21.433167
-24.704103 -0.29734775 21.252319
-23.665472 -0.10471169 21.339952
-23.433159 -0.039440349 21.438969
-24.3545 0.21404532 21.424271
-23.720335 0.12754647 21.416542
-23.222744 0.12884226 21.446697
-22.894012 0.3398625 21.324942
-24.766068 0.61037487 21.441227
-23.86661 0.43108654 21.356821
-21.626774 0.72633857 21.305973
-21.422878 0.71421307 21.392796
-21.095488 0.72038186 21.203358
-23.784472 0.97568762 21.373333
-22.972824 0.82482052 21.542076
-22.496523 0.9893114 21.443781
-22.341846 0.92915052 21.438488
-21.743849 0.88561034 21.329203
-21.407433 0.96719825 21.474367
-20.890566 1.0804447 21.455887
-24.924301 1.3683634 21.471626
-21.411114 1.2229847 21.529337
-20.436714 1.4928383 21.54002
-23.457626 1.6127294 21.469393
-21.440365 1.7615954 21.510309
-20.582878 1.8423343 21.495361
-20.136318 1.9122369 21.476625
-20.846367 2.0235562 21.549953
-20.735641 2.1939335 21.335577
-20.454645 2.8150074 21.35273
-24.7467 -0.061668992 21.667885
-24.075909 -0.27430293 21.988806
-25.008253 0.25950804 21.682327
-24.587589 0.26917008 21.854332
-23.672922 0.021178178 21.805519
-23.274488 0.11941492 21.811237
-22.981922 0.29165444 21.871822
-22.69413 0.25699782 21.868645
-25.186687 0.73577064 21.607098
-23.787809 0.60009021 21.99227
-23.069801 0.45683169 21.830973
-22.638012 0.58284414 21.680508
-21.788553 0.69461221 21.70426
-21.442604 0.41263774 21.956619
-24.453176 1.0342727 21.807722
-24.377262 1.0051247 21.782907
-23.779028 0.96511602 21.92952
-23.102694 0.82530934 21.897812
-22.536337 1.1139557 21.684767
-21.842775 1.0339292 21.739271
-21.329693 1.042206 21.727142
-20.94945 1.0191623 21.732685
-21.521708 1.3564346 21.891705
-21.065815 1.4455019 21.776403
-20.610546 1.3874044 21.779232
-23.893894 1.6808567 21.73617
-21.629135 1.8607526 21.903416
-21.515945 1.9445003 21.808825
-20.759199 1.7462676 21.92802
-20.838182 2.0178385 21.763309
-24.153357 -0.46589118 22.182812
-28.666962 -0.3309921 22.264427
-24.944376 -0.16388546 22.259064
-24.09729 -0.19828394 22.030098
-23.96983 -0.18537611 22.119753
-23.499723 -0.067260802 22.31905
-22.316814 -0.38827652 22.294548
-28.649374 0.17321497 22.22695
-24.083843 0.28093711 22.051514
-23.944565 0.1356957 22.085077
-23.386692 0.062240731 22.100203
-23.013874 0.26141238 22.26771
-22.715578 0.25926474 22.302828
-21.758068 0.36522874 22.232586
-21.376707 0.29484996 22.216433
-21.169407 0.2509512 22.300745
-24.895096 0.77251536 22.179428
-22.551497 0.58437943 22.25841
-22.245829 0.67964166 22.20808
-21.925476 0.7561639 22.22094
-25.720665 1.1986268 22.052416
-25.12459 1.0584739 22.113682
-22.037117 0.82633328 22.276941
-21.424946 1.1235613 22.113729
-23.516386 1.2756687 22.322018
-21.821922 1.2773407 22.370073
-21.313189 1.5683851 22.036638
-21.049364 1.6719221 22.349854
-19.978367 2.1703205 22.26412
-21.211983 3.2449563 22.284843
-25.578016 -0.45943269 22.58865
-24.993282 -0.50697309 22.419827
-24.739742 -0.4933455 22.497889
-24.076666 -0.54687399 22.658648
-23.934196 -0.40285897 22.656513
-28.605751 -0.19615729 22.562374
-25.754866 -0.23263763 22.6082
-24.813501 -0.072648868 22.525015
-24.342617 -0.18722665 22.624285
-23.694843 -0.047529727 22.667097
-26.028538 0.14690009 22.63319
-24.801149 0.14444131 22.556473
-24.651436 0.26668328 22.55525
-24.207401 0.020465001 22.611401
-23.733603 0.10158204 22.590666
-23.372141 0.12839463 22.491816
-23.053202 0.18353173 22.58802
-22.595913 0.2747916 22.424438
-21.776917 0.39041206 22.494411
-21.457466 0.37704456 22.534536
-28.675421 0.65905583 22.58585
-25.574394 0.67346799 22.707848
-24.520769 0.42671061 22.605053
-23.57992 0.782166 22.482445
-22.563589 0.6861307 22.499247
-22.054394 0.68120229 22.503677
-21.905525 0.6668064 22.469152
-21.432913 0.52939492 22.618456
-24.689106 0.98588479 22.790529
-24.12735 1.1426712 22.642414
-22.223732 1.1145988 22.692577
-21.590969 1.1077054 22.485281
-20.998055 1.0850339 22.49329
-20.677732 1.1949159 22.671772
-22.56188 1.4687649 22.541882
-22.323002 1.2327244 22.678343
-21.386612 1.4526886 22.696495
-20.905514 1.310975 22.544949
-20.730663 1.2977805 22.611759
-20.001778 2.3071177 22.623192
-19.881763 2.3900144 22.608379
-23.355904 2.6806753 22.492615
-20.148952 2.6519279 22.471321
-25.934565 -0.55057156 22.91704
-28.585987 -0.26114163 22.905895
-24.5327 -0.30761546 23.064407
-24.298164 -0.13701992 22.879654
-23.681391 -0.04909797 23.087938
-23.596119 -0.15282619 23.111021
-28.640591 0.26232922 23.0457
-24.066811 0.19083297 23.067108
-23.945513 0.17422374 22.948225
-23.426332 0.33315146 22.911383
-2.65746 0.26030368 23.123745
-28.623039 0.59815079 22.887066
-24.78248 0.59700805 22.99375
-23.129778 0.48791048 23.020401
-22.581806 0.61914736 23.134228
-22.000105 0.77095318 22.984291
-21.758404 0.68922991 22.964363
-21.298599 0.56912202 22.923786
-21.162764 0.48242971 22.819515
-28.717552 1.0685408 22.862782
-24.185308 0.97597271 22.939453
-23.814396 0.96626508 22.903465
-23.284157 0.81846321 23.190128
-22.015104 1.0483345 23.089479
-21.915033 0.93252641 22.975241
-20.988575 1.1929679 22.88727
-25.424347 1.2964821 22.978094
-21.52706 1.5668634 23.094864
-21.079613 1.4007612 22.892054
-21.667145 1.6783209 22.915386
-21.169804 1.6690761 22.807438
-21.457005 2.2028897 23.161526
-21.046207 2.3003743 22.975765
-20.5979 2.1558404 23.038057
-25.253906 -0.43039131 23.373402
-24.654102 -0.42544615 23.544954
-28.604488 -0.37384516 23.596371
-24.917288 -0.20445181 23.399668
-24.475189 -0.36763442 23.505053
-24.312464 -0.13259572 23.375504
-23.857256 -0.10881151 23.359993
-23.527628 -0.1442527 23.328064
-28.649555 0.3233836 23.329678
-25.54076 0.19863595 23.532648
-25.062384 0.041533634 23.358418
-23.754496 0.22808444 23.35965
-23.508919 0.26530075 23.559071
-22.931103 0.37239945 23.410465
-22.658485 0.31786519 23.535269
-25.213467 0.59893978 23.37805
-23.509724 0.60395467 23.57415
-22.991911 0.52742529 23.563967
-22.581261 0.49599016 23.372671
-22.035252 0.52202427 23.583588
-28.637094 0.90471619 23.445204
-24.883112 1.1127174 23.30649
-24.071827 0.88886452 23.395973
-22.414099 1.0821784 23.228558
-22.05117 0.974226 23.399059
-21.849808 0.95305037 23.311735
-21.649416 1.5547173 23.563259
-21.394669 1.3746736 23.372532
-20.603428 1.3716835 23.28273
-28.748497 1.7221414 23.35033
-20.611986 1.7552227 23.553385
-20.31377 1.8770229 23.49675
-20.816559 2.0384235 23.271908
-20.603373 2.1501632 23.380363
-20.2491 2.2106032 23.283718
-22.334383 2.7071571 23.304214
-21.629768 2.6187603 23.594288
-21.472761 2.4441259 23.305878
-20.638103 2.7261755 23.428547
-23.50581 3.1588905 23.568451
-22.613291 3.1972618 23.558067
-24.326015 -0.49374735 23.648895
-28.510349 -0.26715824 23.689911
-26.36009 -0.031818897 23.839027
-25.686211 -0.27164292 23.760195
-25.489145 -0.10159423 23.667645
-25.047455 -0.075458094 23.884058
-24.785601 -0.19715428 23.652746
-23.891472 -0.27618778 23.906038
-23.532473 -0.10304889 23.63414
-28.56613 0.17198437 23.777699
-27.527811 0.1486924 23.693035
-26.742393 0.17770323 23.664627
-23.803234 0.15546516 23.85548
-23.362055 0.08427316 23.832218
-22.944614 0.14679834 23.698538
-22.707661 0.22261761 23.791716
-28.638321 0.57061917 23.668568
-23.39736 0.41536111 23.966068
-23.020212 0.75768787 23.696217
-22.638714 0.43201834 23.720264
-22.355782 0.62341422 23.973139
-21.922028 0.52225596 23.87896
-21.435574 0.74272746 23.841202
-24.372555 1.023141 23.931128
-23.943783 0.88274199 23.631754
-22.229137 1.0414401 23.829939
-21.715494 1.0459872 23.743586
-21.417454 0.95356536 23.803757
-21.137264 0.85158896 23.778126
-28.533381 1.5180984 23.665421
-23.231199 1.5270079 23.995693
-22.802803 1.5437553 23.877722
-22.458246 1.403746 23.862722
-21.382772 1.2562574 23.802124
-21.873714 1.877339 23.956516
-20.990669 1.8833797 23.961021
-20.68858 1.9501913 23.882351
-20.000929 1.9354827 23.713608
-19.933096 1.9232703 23.691315
-20.462313 2.3706748 23.707283
-20.617546 2.6567411 23.772528
-21.91923 3.159796 23.968674
-21.134043 3.1856189 23.928753
-21.029419 3.3943322 23.802376
-25.391693 -0.51823974 24.281746
-24.526562 -0.43558487 24.204763
-24.139654 -0.49613911 24.097912
-28.579197 -0.3891992 24.135601
-26.176327 -0.074730769 24.025032
-25.467009 -0.35976684 24.048843
-24.611473 -0.24491443 24.208431
-24.24192 -0.14604768 24.204298
-23.50428 -0.065361321 24.170097
-28.543823 0.096909292 24.1754
-26.042957 0.34055689 24.078434
-23.345314 0.13428703 24.256769
-22.70871 0.17191504 24.1924
-28.479208 0.45630294 24.140316
-23.910269 0.64764303 24.008232
-22.870768 0.41033024 24.397985
-22.782288 0.75261247 24.057083
-22.113178 0.65384626 24.298201
-21.819857 0.60396838 24.214497
-21.136265 0.74614757 24.194336
-28.480188 0.85528541 24.267847
-25.975189 1.1519345 24.346874
-24.475563 1.005469 24.307678
-22.504589 1.1126975 24.253563
-22.232523 1.0132709 24.198883
-21.781746 0.88903821 24.234333
-21.352852 1.0519525 24.127243
-21.156395 1.0589072 24.223085
-24.565239 1.3125688 24.186338
-23.044523 1.5853021 24.13732
-22.739458 1.2760379 24.364035
-22.325699 1.3067849 24.160503
-21.63501 1.4453058 24.166822
-21.466061 1.3437333 24.08264
-23.562237 1.7618588 24.097286
-23.124027 1.6094586 24.303699
-22.42514 1.6522613 24.109779
-22.164824 1.86236 24.250446
-21.811106 1.7978169 24.190445
-21.471344 1.7927132 24.144556
-21.044962 1.8160744 24.179569
-20.610962 1.755978 24.082972
-21.333931 2.1602309 24.265217
-23.648382 3.1669405 24.182262
-28.407602 -0.42247263 24.673405
-24.561296 -0.44552231 24.687506
-24.37915 -0.54145408 24.73255
-21.636299 -0.54779297 24.553156
-28.466223 -0.35532486 24.713043
-26.486811 -0.14740553 24.740309
-26.304056 -0.22654989 24.550053
-25.438992 -0.33240199 24.572437
-25.161942 -0.3824352 24.761555
-24.561733 -0.33649939 24.631832
-24.35421 -0.22513451 24.699089
-23.788822 -0.04698725 24.640757
-23.297245 -0.34825253 24.704071
-28.428308 0.16021487 24.449448
-28.337687 0.0051382408 24.718164
-26.951475 0.09753181 24.515186
-26.57341 0.0033548474 24.646805
-25.22061 0.0033789272 24.794443
-23.275795 0.18590111 24.650108
-22.978258 0.21157621 24.696419
-22.620066 0.2154565 24.581163
-21.471245 0.32077137 24.51741
-28.445631 0.68292922 24.599274
-23.938732 0.67175132 24.561832
-22.970827 0.55642104 24.487316
-22.591101 0.72052985 24.571173
-22.156826 0.71892655 24.548416
-21.717751 0.65703028 24.523384
-21.577156 0.50984544 24.472879
-28.490929 0.86976045 24.435295
-23.344988 0.98678267 24.747185
-22.957893 0.99354267 24.747801
-22.656792 1.1479208 24.530506
-22.244408 0.93776947 24.523033
-21.921333 0.91155702 24.687168
-21.292791 1.0034624 24.448227
-23.206919 1.2051452 24.718111
-22.908283 1.3453351 24.501133
-22.664997 1.4499842 24.64502
-21.549107 1.5666807 24.612747
-21.089504 1.3674012 24.648458
-28.528948 1.6945312 24.69059
-23.475895 1.7484149 24.714176
-22.032927 1.7501221 24.52961
-21.814247 1.6525643 24.49939
-22.847744 2.2364292 24.710583
-21.080399 2.2355785 24.762001
-21.859615 2.4628189 24.574425
-21.337933 2.5253611 24.538153
-20.807276 2.8545926 24.716339
-25.271612 -0.41013375 25.028954
-25.052361 -0.5462091 25.016327
-24.549736 -0.49353832 25.12999
-24.345142 -0.46655962 24.981335
-28.43548 -0.15764211 25.006208
-26.5881 -0.15850833 25.089203
-25.772429 -0.17414597 25.10091
-25.219322 -0.349693 25.038479
-25.157516 -0.35951817 25.060358
-24.411263 -0.33556697 24.897091
-23.752132 -0.31905311 25.085211
-23.35169 -0.062877782 24.951233
-23.023668 -0.12217257 25.033136
-22.713173 -0.12394569 25.083687
-28.435265 0.19391172 24.829363
-28.392042 0.1684985 25.029999
-27.384272 0.17917007 24.903118
-27.199051 0.014019236 25.116678
-23.357649 0.22513989 25.152763
-23.093246 0.20939474 24.95508
-22.714199 0.15382446 24.997061
-28.425034 0.49411598 24.968603
-28.368362 0.59383821 25.027643
-24.547012 0.73220301 25.128662
-24.061214 0.6484217 24.976074
-23.378147 0.56978863 25.109379
-23.112593 0.63288569 25.123152
-22.657686 0.50693578 24.950636
-22.143087 0.58491367 25.159128
-28.43697 0.86071211 24.898308
-25.191048 0.84345073 25.192272
-24.205677 1.0309466 25.084282
-23.873249 0.92942834 24.882551
-23.328461 0.98029006 25.017912
-22.931763 0.88416368 25.100952
-22.578373 0.97831708 24.925274
-22.185928 0.89468944 25.016232
-6.1885252 0.98465902 25.162092
-28.449657 1.3793936 25.108313
-24.370226 1.2886425 25.190163
-23.309507 1.4795319 24.874334
-23.03055 1.3962884 25.029942
-22.696692 1.529955 24.97493
-22.373562 1.3167887 25.023914
-21.07123 1.2860383 24.893074
-6.193666 1.2361031 25.151836
-28.518164 1.7636585 25.082878
-23.787451 1.7574878 25.091433
-23.077732 1.8947716 25.159048
-22.60121 1.7522128 24.991867
-21.851826 1.8864738 24.966881
-21.774889 2.2004216 24.902374
-21.441196 2.2241964 24.910427
-28.580906 2.6353014 25.137291
-23.434601 2.7776511 25.192131
-22.177299 2.6168323 25.17271
-20.876637 2.7169244 24.807789
-25.680191 3.0679996 25.060722
-23.609497 3.2826905 25.10849
-28.444252 -0.54155672 25.298592
-26.463274 -0.53613508 25.466202
-25.112858 -0.4761799 25.394339
-24.419645 -0.50823951 25.200481
-21.702339 -0.54252088 25.416922
-6.4946442 -0.53737807 25.513098
-28.454914 -0.18271051 25.365711
-28.340868 -0.15973853 25.38048
-27.266838 -0.0075463653 25.304062
-27.003922 -0.15977927 25.436018
-26.483929 -0.1609627 25.590294
-24.540785 -0.11886664 25.581638
-23.821384 -0.16078679 25.397316
-22.913347 -0.19889092 25.315454
-22.738863 -0.14802349 25.351845
-6.5563617 -0.21194451 25.469376
-6.1858983 -0.18049224 25.520836
-5.9996176 -0.19233875 25.553881
-28.467321 0.24015991 25.401335
-28.352362 0.18815152 25.384558
-24.644829 0.28931978 25.241743
-24.020195 0.029861927 25.470327
-23.879158 0.39843261 25.562191
-23.258272 0.17817171 25.329361
-23.130892 0.23218161 25.293341
-22.675053 0.29671109 25.346205
-21.849588 0.39229921 25.53706
-6.6136141 0.17315125 25.451275
-6.1387644 0.19441348 25.518272
-28.492901 0.67205322 25.427694
-28.3517 0.57167161 25.333954
-24.837204 0.78950763 25.497185
-24.428148 0.47410807 25.438501
-24.06999 0.43803054 25.404011
-23.853958 0.55384445 25.411713
-23.361732 0.53139555 25.358845
-23.022089 0.56360751 25.326263
-22.63183 0.71347332 25.35133
-22.227764 0.68329573 25.406078
-21.976833 0.60567194 25.417725
-6.5485773 0.58956856 25.470547
-6.1964946 0.59343112 25.507988
-28.437534 1.0297636 25.340454
-28.386282 1.0557569 25.339964
-23.841869 0.95028979 25.37207
-23.513992 0.8838501 25.56579
-23.042028 0.96320838 25.374252
-6.494597 0.97795755 25.500366
-6.2543139 0.97151721 25.478855
-28.429186 1.4257772 25.411013
-28.35066 1.3837996 25.521027
-25.363686 1.4757395 25.528307
-24.483334 1.2372698 25.228161
-24.316277 1.4530277 25.436497
-23.377415 1.3082142 25.3615
-23.07464 1.4493906 25.421261
-6.486589 1.3487822 25.510633
-6.3405485 1.2428982 25.544537
-28.450272 1.7464516 25.449711
-26.996372 1.8851153 25.596508
-24.974119 1.9003359 25.487492
-24.256165 1.9828562 25.381599
-23.939041 1.6914192 25.449646
-22.917789 1.9855685 25.243584
-22.719446 1.9634502 25.567953
-21.858122 1.874683 25.480707
-6.531209 1.7126212 25.49514
-6.3658471 1.8223078 25.49968
-28.432571 2.1619139 25.340317
-28.376289 2.0435295 25.489166
-24.591663 2.364408 25.496628
-24.205503 2.2442949 25.564072
-23.20208 2.3939779 25.562813
-22.000729 2.1708634 25.436789
-21.835091 2.2243567 25.243584
-6.6019154 2.1807733 25.422472
-24.536194 2.5862775 25.573498
-23.240805 2.6845465 25.301239
-22.792101 2.615736 25.469673
-22.229654 2.6028156 25.503384
-21.985458 2.694488 25.201313
-6.5996876 2.4510326 25.459728
-28.626869 3.0277488 25.293953
-24.670721 3.1150033 25.306499
-24.112843 3.0718791 25.354393
-28.413795 -0.40739232 25.849712
-21.754837 -0.53403866 25.617035
-28.465643 -0.016968578 25.80917
-28.309826 -0.20849033 25.785416
-27.096321 -0.12321775 25.680149
-26.486012 -0.1803605 25.661381
-24.537466 -0.10827651 25.833628
-24.179264 -0.12489166 25.649597
-23.861433 -0.093353897 25.792162
-6.4709206 -0.28686592 25.654907
-6.17522 -0.17688562 25.693041
-5.9819269 -0.19183654 25.654411
-28.331562 0.19503839 25.780334
-26.435978 0.009509176 25.863548
-24.606674 0.10962538 25.834778
-24.155888 0.17762356 25.805552
-23.958223 0.12747803 25.782551
-23.336113 0.28064513 25.955322
-23.07782 0.15568453 25.8337
-6.4863992 0.23986726 25.713486
-6.2052741 0.19461347 25.691368
-28.432404 0.76101065 25.798019
-28.33396 0.63088578 25.734161
-24.992865 0.50223929 25.795921
-24.197817 0.67249995 25.804428
-23.737249 0.74978071 25.725567
-23.377647 0.58071321 25.8829
-22.119154 0.62053961 25.735315
-6.4780173 0.61740142 25.67837
-6.2537861 0.5528121 25.703463
-28.416824 1.0261152 25.608757
-28.330658 0.98048472 25.732416
-24.190607 0.97597581 25.860773
-23.834866 0.86883461 25.706459
-23.32523 1.0247835 25.779011
-22.976475 0.94283706 25.800999
-22.508566 1.1068858 25.875738
-22.314686 1.1245265 25.944752
-6.3265948 0.94884115 25.652695
-5.9717722 0.95803088 25.681725
-28.446365 1.3127679 25.68189
-28.346325 1.366891 25.771278
-26.826376 1.4350488 25.92907
-26.150787 1.5875802 25.868765
-25.786434 1.3706028 25.716413
-24.444307 1.5299046 25.849163
-24.230701 1.3483372 25.769674
-23.89925 1.5211467 25.794447
-23.373577 1.3744235 25.748775
-23.132473 1.4266802 25.816216
-22.556087 1.2905365 25.778942
-22.260801 1.245798 25.938404
-6.4192924 1.3988259 25.690819
-28.422855 1.73049 25.808331
-28.371593 1.660352 25.71615
-27.154825 1.8392959 25.681362
-26.312511 1.6322193 25.739922
-24.666737 1.974329 25.881638
-24.141069 1.7545538 25.818216
-23.803642 1.6234089 25.661282
-23.346062 1.727021 25.803217
-22.523588 1.8379211 25.864786
-21.748093 1.7986542 25.683731
-28.442453 2.1575296 25.783762
-28.362467 2.0376091 25.73996
-27.94976 2.352253 25.904583
-26.960625 2.1930282 25.789223
-26.3025 2.0710511 25.774746
-25.735991 2.2587743 25.901558
-25.441109 2.2115717 25.946281
-25.128933 2.1804328 25.801144
-24.547081 2.351388 25.902061
-24.231991 2.3658719 25.690567
-23.34663 2.1907065 25.867678
-22.477703 2.1895938 25.907944
-22.371601 2.3652265 25.972889
-28.464621 2.5733049 25.868586
-25.1255 2.4852765 25.839134
-23.527336 2.5446541 25.873535
-22.423252 2.5900295 25.768204
-28.466738 3.0859699 25.876717
-28.241564 -0.091945194 26.169329
-26.419399 -0.19085333 26.023058
-24.884424 -0.30943385 26.06155
-24.730524 -0.19235742 26.056192
-23.742626 -0.29892778 26.019173
-21.598574 -0.36502588 26.231247
-28.251801 0.26110843 26.178719
-24.103485 0.23443244 26.27095
-23.12709 0.31533179 26.136585
-28.42959 0.73181462 26.1819
-28.261614 0.63766873 26.183466
-24.5529 0.56936014 26.298548
-24.244665 0.70883322 26.212132
-23.912849 0.46594274 26.150166
-23.365133 0.58876252 26.168224
-23.142353 0.53808153 26.25235
-28.281597 0.94930631 26.165943
-26.66963 0.9486087 26.296398
-25.842617 1.1165897 26.078896
-24.546804 0.9727819 26.342325
-24.211786 1.0347208 26.224701
-22.30829 1.0411804 26.166599
-28.310995 1.3568326 26.181524
-26.844143 1.3528385 26.312897
-26.665827 1.2713436 26.19762
-26.157938 1.3531163 26.10305
-25.787218 1.2463442 26.020023
-24.547821 1.5165796 26.367384
-24.15036 1.3467066 26.10841
-22.872137 1.2053859 26.012177
-28.438187 1.9856188 26.268379
-28.355118 1.7904819 26.206949
-27.705143 1.9774444 26.386978
-26.762676 1.9944739 26.207518
-25.783798 1.9606413 26.166782
-25.546448 1.9690199 26.213272
-25.031765 1.9420609 26.052797
-24.664864 1.7711921 26.168304
-24.160131 1.9821154 26.119913
-23.933304 1.7732515 26.074564
-23.360281 1.8928469 26.165216
-22.890453 1.8891097 26.035492
-22.492523 1.78142 26.236477
-28.435202 2.1847522 26.230488
-28.285206 2.1607425 26.249477
-27.520161 2.1810915 26.376499
-24.990248 2.021148 26.076818
-24.536896 2.230778 26.202332
-24.099827 2.1748803 26.107416
-23.255081 2.1590481 26.25849
-22.867233 2.1756022 26.213814
-22.607506 2.2240593 26.096483
-28.463078 2.5418584 26.235382
-28.398588 2.4650776 26.212749
-24.408634 2.7084572 26.380539
-23.059511 2.5757525 26.028721
-22.790127 2.5734913 26.119534
-28.464941 2.8394966 26.399361
-26.173866 3.1891904 26.123482
-28.239376 -0.21899128 26.574673
-28.235704 0.17231132 26.579643
-24.117897 0.3138659 26.447037
-28.239786 0.60620087 26.59267
-25.237562 0.65305853 26.703083
-25.109972 0.67786485 26.633799
-24.181274 0.68165809 26.528803
-23.86165 0.53705871 26.539463
-23.174688 0.63389754 26.497715
-28.215681 1.0170634 26.559406
-26.630444 1.069731 26.488585
-26.225874 1.1038058 26.484369
-24.710714 0.88354731 26.691366
-24.230688 0.92129391 26.548435
-28.231331 1.3199517 26.551613
-24.541103 1.5222905 26.407028
-24.254177 1.3096316 26.593294
-28.289755 1.7231051 26.588406
-27.868006 1.9990512 26.479507
-25.2372 1.8851652 26.580809
-25.031677 1.7474818 26.734011
-24.56447 1.6029172 26.433567
-24.009851 1.6837626 26.54755
-22.520733 1.8836987 26.530691
-22.319721 1.7636054 26.530743
-28.304579 2.1392577 26.571333
-27.438339 2.0909414 26.476852
-26.632784 2.2956913 26.580128
-23.289751 2.1909001 26.575171
-27.759201 2.5297363 26.600513
-25.287807 2.5404994 26.497776
-25.157162 2.5465486 26.412003
-24.516573 2.730835 26.74802
-24.219028 2.5296285 26.459187
-23.717571 2.563184 26.486908
-28.118111 -0.52288222 27.033461
-28.176121 -0.26882231 26.972534
-28.190794 0.17820105 26.958801
-28.223513 0.64709067 26.962786
-24.581463 0.78149873 26.961948
-28.176075 1.0212764 26.958479
-24.919884 0.85907453 27.006361
-24.784258 0.99879014 27.122749
-24.351284 0.97595739 27.044495
-28.20232 1.3683506 26.947937
-24.224974 1.2393939 26.872
-28.276495 1.7576656 26.972473
-25.721577 1.9778247 27.083239
-28.269659 2.1330922 26.960321
-25.838604 2.1555753 27.042393
-28.352436 2.5605392 26.993938
-25.784519 2.4739449 26.865021
-28.081272 -0.55001509 27.430094
-28.158279 -0.21951719 27.343103
-28.163843 0.21824725 27.383507
-28.15461 0.63029248 27.376944
-28.154428 0.99707061 27.356619
-24.113628 1.1445349 27.328754
-28.162376 1.3638 27.341936
-24.08901 1.2726117 27.364405
-28.213184 1.7679043 27.36623
-25.924294 1.9398019 27.250076
-28.211288 2.104527 27.410604
-25.729195 2.0023894 27.443401
-28.221638 2.5235381 27.480959
-26.226664 2.5969763 27.222076
-28.331091 3.0202734 27.415207
-26.160446 2.9856498 27.511862
-28.039682 -0.53269088 27.749609
-28.080315 -0.21234837 27.759184
-27.962183 -0.020979151 27.988653
-28.093384 0.19398938 27.732368
-28.117853 0.660595 27.81591
-28.086559 1.0249516 27.767717
-28.132668 1.3776392 27.761488
-28.182896 1.8158917 27.744961
-28.203232 2.1600146 27.791193
-28.201557 2.4470286 27.87216
-28.301594 2.9288394 27.635887
-28.054054 -0.50928867 28.125416
-21.343754 -0.54455155 28.089563
-28.056829 -0.20833935 28.140137
-27.966993 -0.23509035 28.279205
-28.073631 0.19111031 28.209249
-27.982895 0.13932574 28.159159
-28.078588 0.60008639 28.144693
-27.988894 0.60059261 28.335417
-28.047607 0.95394874 28.138634
-28.078651 1.3699454 28.134874
-28.127577 1.8355933 28.115942
-28.14769 2.1281397 28.22044
-28.198263 2.4764209 28.198471
-28.248096 2.9825478 28.165913
-28.041889 -0.21963501 28.545307
-27.955709 -0.20580313 28.579084
-28.043896 0.14685126 28.537533
-27.966816 0.21910773 28.539469
-28.070704 0.62731063 28.538834
-27.967819 0.60221112 28.573736
-28.042538 1.0475252 28.534023
-27.976063 0.95472705 28.582069
-28.054102 1.4150914 28.586218
-27.985085 1.4740269 28.515533
-28.082109 1.794868 28.57053
-28.119974 2.121212 28.543072
-28.154106 2.524874 28.639772
-28.223671 2.9289885 28.588198
-21.299084 -0.51810712 28.811584
-28.025635 -0.29016101 28.854221
-27.931271 -0.16838543 28.976471
-28.048256 0.20059095 28.925802
-27.93012 0.21754406 28.971672
-28.129173 0.67771417 28.940228
-27.939629 0.66037923 28.95952
-28.026257 0.98360807 28.934387
-27.940767 1.0068645 28.934702
-28.028828 1.4213004 29.013338
-27.97307 1.3594835 28.945644
-28.035051 1.8624475 28.902321
-27.984108 1.8616228 29.069666
-28.085245 2.1516645 28.999655
-27.977627 2.1098034 28.968937
-28.109209 2.5291886 28.863495
-27.870621 -0.55011261 29.402853
-21.24122 -0.50184989 29.259445
-27.891638 -0.19983865 29.38302
-21.078735 -0.34824586 29.503201
-28.020845 0.014790922 29.304562
-27.904861 0.22816108 29.37047
-28.091604 0.72513008 29.349026
-27.883102 0.64001954 29.399832
-27.919348 0.96131843 29.31444
-28.021715 1.3873589 29.478008
-27.923676 1.3869634 29.364126
-28.01067 1.6946329 29.471189
-27.975533 1.8247113 29.397762
-28.000671 2.2549524 29.414234
-27.960125 2.0703039 29.366573
-28.059483 2.455781 29.316847
-28.075972 2.9387972 29.307293
-27.816658 -0.54897296 29.796932
-27.866766 -0.22904843 29.788633
-27.860476 0.19838792 29.813459
-28.058504 0.72498286 29.696461
-27.871426 0.64039004 29.778028
-27.860239 0.94908363 29.736292
-27.894516 1.3850247 29.719551
-27.930584 1.7853339 29.716761
-28.043346 2.0936108 29.702427
-27.916779 2.1639097 29.828556
-27.798439 -0.52721012 30.183954
-27.804874 -0.20503533 30.165735
-27.838837 0.23266642 30.133821
-28.021139 0.72380185 30.046478
-27.819399 0.62289983 30.200823
-27.828381 1.0007732 30.144499
-27.852682 1.4223338 30.121113
-27.905916 1.8310771 30.161369
-28.047495 2.0959549 30.062664
-27.931318 2.1683345 30.20726
-27.986341 2.7132492 30.187332
-21.319103 -0.40825164 30.787485
-27.760897 -0.20051521 30.55246
-21.250149 -0.38546771 30.40752
-27.765062 0.24985449 30.534763
-27.755436 0.65127134 30.563438
-27.771769 0.98326153 30.564352
-27.803949 1.4023514 30.541277
-27.83573 1.8477818 30.535471
-27.845657 2.131469 30.558142
-27.944977 2.5844021 30.549925
-27.668825 -0.47225225 30.979832
-27.699671 -0.19272463 30.988878
-21.424534 -0.38601649 30.820099
-21.173733 -0.39662194 31.087147
-27.706678 0.19290768 30.93985
-27.708349 0.64536756 30.955219
-27.718288 0.99878061 30.934547
-27.761316 1.3970691 30.933784
-27.798296 1.8262124 30.917191
-27.819324 2.0908055 30.96706
-27.904753 2.6810684 31.173981
-27.90848 2.8591058 31.178131
-27.643694 -0.50675964 31.314148
-27.117273 -0.53006738 31.433762
-20.919376 -0.4831084 31.41382
-27.648026 -0.19781806 31.339762
-27.31456 -0.26731798 31.405634
-27.109486 -0.25428876 31.502836
-27.700245 0.2289996 31.342516
-27.697742 0.63337696 31.343241
-27.689337 1.0106506 31.390379
-27.709885 1.4411323 31.374174
-27.743158 1.8786291 31.382523
-27.809326 2.1674364 31.410975
-27.87129 2.6709623 31.50526
-27.078541 -0.546857 31.740715
-20.880461 -0.49729601 31.792704
-27.649679 -0.063966691 31.699255
-27.090164 -0.25305679 31.771971
-27.65045 0.28576601 31.721828
-27.583424 0.18449789 31.757013
-27.672422 0.68204814 31.726263
-27.576771 0.63031101 31.793663
-27.652941 1.0142674 31.791611
-27.589394 0.856646 31.860144
-27.683632 1.4406242 31.724211
-27.599279 1.2469105 31.966167
-27.698498 1.8020403 31.708378
-27.740692 2.101305 31.689926
-27.811214 2.5826716 31.895067
-27.91658 2.893667 31.87487
-27.043371 -0.55323106 32.250099
-20.817005 -0.48451993 32.342743
-27.611382 -0.059544951 32.115189
-27.442759 -0.20532639 32.283512
-27.045563 -0.2657201 32.193447
-20.771694 -0.35941294 32.271847
-27.638004 0.23795372 32.159714
-27.560389 0.20139062 32.164452
-27.6383 0.64055228 32.182507
-27.553864 0.64484137 32.182308
-27.625357 1.1053709 32.152531
-27.569527 0.9941386 32.209999
-27.645338 1.4365659 32.156879
-27.57345 1.3937016 32.233341
-27.661219 1.8384348 32.175507
-27.718287 2.0776563 32.184834
-27.734377 2.6407108 32.390026
-27.533936 -0.53433508 32.571785
-26.999672 -0.53708661 32.449406
-27.64707 -0.27310634 32.492424
-27.501947 -0.22888432 32.539993
-26.986351 -0.24303846 32.529514
-20.937662 -0.39855561 32.680038
-27.656635 0.19275635 32.583122
-27.530291 0.24641369 32.53817
-27.61311 0.47683555 32.565922
-27.521881 0.65546554 32.622173
-27.632103 0.86864805 32.513611
-27.545033 1.0007086 32.550243
-27.623177 1.5184925 32.555222
-27.557156 1.3556867 32.551193
-27.64323 1.8460078 32.513931
-27.566669 1.8497632 32.638611
-27.673162 2.2566192 32.516994
-27.600809 -0.41816846 32.995773
-27.414536 -0.49093255 33.004536
-27.491972 -0.22379437 32.898762
-20.849375 -0.34795433 32.9058
-20.700264 -0.39450908 32.950699
-27.488245 0.27040014 32.945499
-27.482857 0.63603443 33.013008
-27.513458 0.98878503 32.943954
-27.604052 1.3444403 32.916531
-27.54215 1.4498242 32.977829
-27.533445 1.7821114 32.999256
-27.588892 2.2120256 32.992748
-27.680414 2.6206882 33.012669
-27.412352 -0.551175 33.384842
-27.438271 -0.20902097 33.371864
-20.937405 -0.35510793 33.300945
-20.699402 -0.38469934 33.298088
-27.448717 0.24256809 33.366199
-27.453993 0.62807602 33.387295
-27.454506 1.022598 33.383705
-27.504953 1.4563543 33.370701
-27.610146 1.9648328 33.33802
-27.486437 1.8277627 33.378223
-27.616045 2.0189223 33.326397
-27.55463 2.2015533 33.345177
-27.652174 2.6116757 33.321362
-27.393253 -0.50161153 33.764416
-27.41592 -0.22716987 33.749836
-20.820274 -0.35094833 33.750935
-27.427839 0.24246994 33.789295
-27.411303 0.61582267 33.767864
-27.416569 1.0130295 33.794624
-27.453928 1.4201076 33.806358
-27.440664 1.8022486 33.791794
-27.532734 2.111264 33.816444
-27.564758 2.670866 33.813995
-27.355251 -0.49335998 34.190025
-27.344561 -0.21538758 34.171062
-20.849976 -0.3594287 34.190853
-20.732531 -0.33248693 34.34943
-27.355854 0.22587353 34.207287
-27.365604 0.63106388 34.178604
-27.160118 0.43061113 34.39859
-27.366283 0.9743309 34.157894
-27.399628 1.3902955 34.132542
-27.404934 1.8207235 34.196163
-27.490387 2.1617837 34.194721
-27.474951 2.4142618 34.171471
-4.4665966 2.4691334 34.338066
-27.335131 -0.47254229 34.544312
-20.50017 -0.52783316 34.615822
-27.313526 -0.19552876 34.558151
-20.594734 -0.35359943 34.459225
-27.324537 0.25100574 34.539223
-27.307812 0.65169096 34.609455
-27.321678 0.97990566 34.523212
-27.610468 1.3611419 34.651093
-27.368416 1.387889 34.544739
-27.38991 1.8190897 34.590855
-27.425148 2.213877 34.645607
-27.494394 2.6398683 34.669514
-3.144381 2.9594302 34.70208
-27.232883 -0.48737073 34.966331
-20.445797 -0.51833558 34.951729
-27.267746 -0.2203079 34.915672
-27.181629 -0.17129707 35.001945
-20.614201 -0.3493576 35.195236
-27.260504 0.23919629 34.956032
-27.24765 0.62436509 35.009892
-27.088539 0.59799206 34.964119
-27.269562 0.98504072 34.971741
-27.306561 1.4041287 34.934231
-27.343216 1.8138319 35.001816
-27.445789 2.1530888 34.921173
-27.452187 2.6224375 34.913074
-3.3985543 2.7987168 35.02985
-2.9778442 2.9380252 35.131409
-27.185135 -0.479568 35.481411
-20.438517 -0.5117538 35.286297
-27.237196 -0.17007506 35.314434
-27.150671 -0.17906839 35.444912
-20.586208 -0.37782237 35.441059
-27.216856 0.24576895 35.426289
-27.110714 0.16602224 35.353336
-26.714489 0.22436948 35.484631
-27.226341 0.63111961 35.318901
-27.059795 0.62198943 35.444408
-26.707199 0.57710582 35.511257
-27.237665 1.0589503 35.324818
-27.120897 0.90741581 35.457916
-27.258478 1.402179 35.367069
-27.278812 1.7896569 35.375847
-27.185564 1.6597426 35.491158
-27.33753 2.1823862 35.29649
-27.496571 2.744734 35.293003
-5.4127722 2.4018679 35.284294
-3.199604 3.4142654 35.230644
-27.242271 -0.48802018 35.813
-27.156427 -0.4818162 35.822678
-20.493563 -0.44666609 35.739513
-4.4105053 -0.54745078 35.927483
-27.225763 -0.19951761 35.838955
-27.13924 -0.20732076 35.736813
-20.59705 -0.33530271 35.998192
-27.238312 0.17488511 35.912533
-27.042971 0.15575156 35.827492
-26.686298 0.25519267 35.765842
-27.08712 0.73068005 35.725521
-26.692265 0.60796398 35.79195
-4.4602795 0.53742045 35.91114
-27.112694 0.98217654 35.796005
-27.232008 1.3723512 35.690899
-27.172359 1.420107 35.884434
-4.2996697 1.572144 35.99295
-27.272766 1.8424827 35.761494
-27.185575 1.7319305 35.897511
-27.28616 2.2165365 35.742126
-4.2296467 2.1848149 35.636993
-4.5387912 2.4743354 35.992558
-3.344337 2.8200521 35.668133
-27.11211 -0.50521153 36.227741
-20.470818 -0.41812676 36.022507
-27.3785 -0.058204621 36.272179
-27.112087 -0.19132675 36.13369
-20.335705 -0.38705823 36.244675
-4.4070239 -0.11221218 36.209564
